# .PCD v.7 - Point Cloud Data file format
VERSION .7
FIELDS x y z
SIZE 4 4 4
TYPE F F F
COUNT 1 1 1
WIDTH 1494
HEIGHT 1
VIEWPOINT 400 400 30 1 0 0 0
POINTS 1494
DATA ascii
195.290000 184.840000 -1.360000
195.220000 184.850000 -1.350000
195.170000 184.850000 -1.360000
195.120000 184.860000 -1.370000
195.040000 184.870000 -1.360000
194.980000 184.880000 -1.350000
194.930000 184.880000 -1.360000
194.890000 184.890000 -1.370000
194.830000 184.900000 -1.360000
194.770000 184.900000 -1.360000
194.730000 184.910000 -1.370000
194.690000 184.910000 -1.380000
194.620000 184.920000 -1.360000
194.580000 184.930000 -1.370000
194.540000 184.930000 -1.370000
194.500000 184.940000 -1.370000
194.460000 184.940000 -1.380000
194.410000 184.950000 -1.370000
194.370000 184.950000 -1.380000
194.320000 184.960000 -1.370000
194.290000 184.970000 -1.380000
194.250000 184.970000 -1.380000
194.210000 184.970000 -1.380000
194.180000 184.980000 -1.380000
194.140000 184.980000 -1.380000
194.100000 184.990000 -1.380000
194.080000 184.990000 -1.390000
194.040000 185.000000 -1.390000
194.000000 185.000000 -1.380000
193.970000 185.010000 -1.390000
193.940000 185.010000 -1.390000
193.900000 185.010000 -1.390000
193.880000 185.020000 -1.390000
193.850000 185.020000 -1.400000
193.810000 185.030000 -1.390000
193.790000 185.030000 -1.400000
193.750000 185.030000 -1.390000
193.730000 185.040000 -1.400000
193.700000 185.040000 -1.390000
193.670000 185.050000 -1.390000
193.640000 185.050000 -1.400000
193.610000 185.050000 -1.400000
193.590000 185.060000 -1.400000
193.560000 185.060000 -1.390000
193.540000 185.060000 -1.400000
193.510000 185.070000 -1.400000
193.480000 185.070000 -1.400000
193.460000 185.070000 -1.400000
193.430000 185.080000 -1.400000
193.410000 185.080000 -1.400000
193.390000 185.080000 -1.410000
193.370000 185.080000 -1.420000
193.340000 185.090000 -1.410000
193.320000 185.090000 -1.410000
193.290000 185.090000 -1.410000
193.260000 185.100000 -1.400000
193.250000 185.100000 -1.410000
193.220000 185.100000 -1.410000
193.210000 185.100000 -1.420000
193.180000 185.110000 -1.410000
193.160000 185.110000 -1.410000
193.140000 185.110000 -1.410000
193.120000 185.120000 -1.410000
193.090000 185.120000 -1.410000
193.070000 185.120000 -1.420000
193.060000 185.120000 -1.420000
193.030000 185.130000 -1.420000
193.010000 185.130000 -1.420000
193.000000 185.130000 -1.420000
192.970000 185.130000 -1.420000
192.960000 185.140000 -1.430000
192.940000 185.140000 -1.430000
192.920000 185.140000 -1.430000
192.900000 185.140000 -1.430000
192.880000 185.150000 -1.430000
192.860000 185.150000 -1.420000
192.840000 185.150000 -1.430000
192.820000 185.150000 -1.440000
192.800000 185.160000 -1.440000
192.780000 185.160000 -1.420000
192.760000 185.160000 -1.430000
192.750000 185.160000 -1.440000
192.730000 185.170000 -1.430000
192.710000 185.170000 -1.430000
192.690000 185.170000 -1.430000
192.670000 185.170000 -1.430000
192.650000 185.180000 -1.430000
192.640000 185.180000 -1.440000
192.630000 185.180000 -1.460000
192.610000 185.180000 -1.450000
192.590000 185.190000 -1.460000
192.570000 185.190000 -1.450000
197.760000 184.370000 -1.370000
197.580000 184.400000 -1.370000
197.420000 184.420000 -1.370000
197.260000 184.440000 -1.370000
197.130000 184.450000 -1.380000
197.000000 184.470000 -1.390000
196.870000 184.490000 -1.390000
196.750000 184.500000 -1.400000
196.630000 184.520000 -1.400000
196.500000 184.530000 -1.390000
196.380000 184.550000 -1.390000
196.260000 184.560000 -1.390000
196.160000 184.580000 -1.390000
196.050000 184.590000 -1.390000
195.960000 184.600000 -1.390000
195.880000 184.610000 -1.400000
195.780000 184.630000 -1.390000
195.700000 184.640000 -1.400000
195.610000 184.650000 -1.400000
195.520000 184.660000 -1.390000
195.450000 184.670000 -1.400000
195.370000 184.680000 -1.390000
195.290000 184.690000 -1.390000
195.230000 184.700000 -1.400000
195.140000 184.710000 -1.390000
195.070000 184.720000 -1.380000
195.000000 184.720000 -1.380000
194.940000 184.730000 -1.390000
194.880000 184.740000 -1.390000
194.820000 184.750000 -1.380000
194.760000 184.760000 -1.380000
194.710000 184.760000 -1.390000
194.660000 184.770000 -1.390000
194.600000 184.780000 -1.390000
194.560000 184.780000 -1.390000
194.520000 184.790000 -1.400000
194.460000 184.790000 -1.390000
194.410000 184.800000 -1.390000
194.370000 184.810000 -1.390000
194.330000 184.810000 -1.400000
194.280000 184.820000 -1.390000
194.240000 184.820000 -1.400000
194.210000 184.830000 -1.400000
194.170000 184.830000 -1.400000
194.130000 184.840000 -1.400000
194.090000 184.840000 -1.400000
194.040000 184.850000 -1.400000
194.010000 184.850000 -1.400000
193.970000 184.860000 -1.400000
193.940000 184.860000 -1.410000
193.910000 184.870000 -1.410000
193.870000 184.870000 -1.410000
193.840000 184.870000 -1.410000
193.810000 184.880000 -1.420000
193.770000 184.880000 -1.410000
193.740000 184.890000 -1.420000
193.720000 184.890000 -1.430000
193.680000 184.890000 -1.420000
193.650000 184.900000 -1.420000
193.630000 184.900000 -1.420000
193.600000 184.910000 -1.420000
193.570000 184.910000 -1.420000
193.540000 184.910000 -1.430000
193.500000 184.920000 -1.420000
193.480000 184.920000 -1.420000
193.450000 184.920000 -1.420000
193.420000 184.930000 -1.420000
193.390000 184.930000 -1.420000
193.370000 184.930000 -1.420000
193.340000 184.940000 -1.420000
193.320000 184.940000 -1.430000
193.290000 184.940000 -1.420000
193.270000 184.950000 -1.430000
193.240000 184.950000 -1.420000
193.220000 184.950000 -1.430000
193.200000 184.960000 -1.430000
193.170000 184.960000 -1.430000
193.150000 184.960000 -1.440000
193.130000 184.970000 -1.440000
193.100000 184.970000 -1.440000
193.080000 184.970000 -1.430000
193.060000 184.970000 -1.440000
193.040000 184.980000 -1.440000
193.010000 184.980000 -1.440000
192.990000 184.980000 -1.440000
192.980000 184.990000 -1.450000
192.960000 184.990000 -1.450000
192.930000 184.990000 -1.440000
192.910000 184.990000 -1.440000
192.890000 185.000000 -1.450000
192.870000 185.000000 -1.450000
192.850000 185.000000 -1.440000
192.830000 185.000000 -1.440000
192.800000 185.010000 -1.440000
192.790000 185.010000 -1.460000
192.770000 185.010000 -1.450000
192.750000 185.010000 -1.450000
192.730000 185.020000 -1.450000
192.710000 185.020000 -1.450000
192.690000 185.020000 -1.450000
192.670000 185.020000 -1.460000
192.660000 185.030000 -1.460000
192.640000 185.030000 -1.460000
192.620000 185.030000 -1.460000
192.600000 185.030000 -1.460000
192.580000 185.040000 -1.460000
192.560000 185.040000 -1.460000
192.540000 185.040000 -1.450000
192.520000 185.040000 -1.450000
192.510000 185.050000 -1.460000
192.490000 185.050000 -1.460000
192.480000 185.050000 -1.480000
192.460000 185.050000 -1.480000
192.440000 185.060000 -1.470000
192.430000 185.060000 -1.480000
192.410000 185.060000 -1.490000
197.410000 184.270000 -1.390000
197.250000 184.290000 -1.390000
197.110000 184.310000 -1.400000
196.960000 184.320000 -1.400000
196.830000 184.340000 -1.400000
196.700000 184.360000 -1.410000
196.580000 184.370000 -1.410000
196.460000 184.390000 -1.420000
196.320000 184.410000 -1.410000
196.210000 184.420000 -1.410000
196.100000 184.440000 -1.410000
195.980000 184.450000 -1.410000
195.890000 184.460000 -1.410000
195.800000 184.470000 -1.410000
195.700000 184.490000 -1.410000
195.610000 184.500000 -1.420000
195.520000 184.510000 -1.420000
195.440000 184.520000 -1.420000
195.370000 184.530000 -1.420000
195.290000 184.540000 -1.420000
195.200000 184.550000 -1.420000
195.120000 184.560000 -1.410000
195.060000 184.570000 -1.420000
194.970000 184.580000 -1.410000
194.900000 184.590000 -1.410000
194.840000 184.600000 -1.400000
194.780000 184.600000 -1.410000
194.720000 184.610000 -1.410000
194.650000 184.620000 -1.400000
194.590000 184.630000 -1.400000
194.550000 184.630000 -1.410000
194.490000 184.640000 -1.400000
194.440000 184.650000 -1.410000
194.400000 184.650000 -1.410000
194.350000 184.660000 -1.420000
194.300000 184.660000 -1.420000
194.250000 184.670000 -1.420000
194.210000 184.680000 -1.420000
194.170000 184.680000 -1.420000
194.130000 184.690000 -1.420000
194.090000 184.690000 -1.430000
194.040000 184.700000 -1.420000
194.000000 184.700000 -1.420000
193.960000 184.710000 -1.430000
193.920000 184.710000 -1.430000
193.890000 184.720000 -1.430000
193.850000 184.720000 -1.430000
193.810000 184.730000 -1.430000
193.780000 184.730000 -1.430000
193.740000 184.740000 -1.430000
193.710000 184.740000 -1.430000
193.670000 184.750000 -1.430000
193.650000 184.750000 -1.440000
193.610000 184.750000 -1.440000
193.590000 184.760000 -1.450000
193.560000 184.760000 -1.450000
193.530000 184.770000 -1.450000
193.490000 184.770000 -1.450000
193.470000 184.770000 -1.450000
193.430000 184.780000 -1.450000
193.400000 184.780000 -1.450000
193.360000 184.790000 -1.440000
193.340000 184.790000 -1.440000
193.310000 184.790000 -1.450000
193.280000 184.800000 -1.450000
193.250000 184.800000 -1.440000
193.230000 184.800000 -1.440000
193.200000 184.810000 -1.450000
193.180000 184.810000 -1.450000
193.150000 184.810000 -1.450000
193.130000 184.820000 -1.450000
193.100000 184.820000 -1.450000
193.080000 184.820000 -1.450000
193.050000 184.830000 -1.450000
193.030000 184.830000 -1.450000
193.000000 184.830000 -1.450000
192.990000 184.840000 -1.460000
192.970000 184.840000 -1.460000
192.940000 184.840000 -1.460000
192.910000 184.840000 -1.450000
192.890000 184.850000 -1.450000
192.870000 184.850000 -1.460000
192.850000 184.850000 -1.470000
192.830000 184.860000 -1.470000
192.810000 184.860000 -1.470000
192.780000 184.860000 -1.460000
192.760000 184.860000 -1.460000
192.740000 184.870000 -1.450000
192.720000 184.870000 -1.460000
192.710000 184.870000 -1.470000
192.680000 184.870000 -1.460000
192.660000 184.880000 -1.470000
192.640000 184.880000 -1.460000
192.620000 184.880000 -1.470000
192.610000 184.890000 -1.480000
192.590000 184.890000 -1.480000
192.570000 184.890000 -1.480000
192.550000 184.890000 -1.480000
192.530000 184.900000 -1.470000
192.510000 184.900000 -1.470000
192.490000 184.900000 -1.490000
192.470000 184.900000 -1.480000
192.450000 184.910000 -1.480000
192.440000 184.910000 -1.490000
192.420000 184.910000 -1.480000
192.390000 184.910000 -1.470000
192.380000 184.910000 -1.480000
192.360000 184.920000 -1.480000
192.340000 184.920000 -1.480000
192.330000 184.920000 -1.490000
192.310000 184.920000 -1.490000
192.300000 184.930000 -1.520000
192.270000 184.930000 -1.490000
192.260000 184.930000 -1.520000
192.250000 184.930000 -1.520000
197.260000 184.140000 -1.410000
197.110000 184.150000 -1.420000
196.950000 184.180000 -1.420000
196.810000 184.190000 -1.430000
196.670000 184.210000 -1.430000
196.550000 184.230000 -1.440000
196.420000 184.240000 -1.440000
196.290000 184.260000 -1.440000
196.170000 184.280000 -1.440000
196.050000 184.290000 -1.440000
195.930000 184.310000 -1.440000
195.830000 184.320000 -1.440000
195.730000 184.330000 -1.440000
195.640000 184.340000 -1.440000
195.540000 184.360000 -1.440000
195.450000 184.370000 -1.440000
195.370000 184.380000 -1.440000
195.280000 184.390000 -1.440000
195.200000 184.400000 -1.440000
195.120000 184.410000 -1.450000
195.040000 184.420000 -1.440000
194.970000 184.430000 -1.440000
194.910000 184.440000 -1.450000
194.810000 184.450000 -1.430000
194.760000 184.460000 -1.440000
194.680000 184.470000 -1.430000
194.600000 184.480000 -1.430000
194.550000 184.480000 -1.430000
194.490000 184.490000 -1.430000
194.440000 184.500000 -1.430000
194.400000 184.500000 -1.440000
194.330000 184.510000 -1.430000
194.280000 184.520000 -1.440000
194.250000 184.520000 -1.450000
194.190000 184.530000 -1.450000
194.140000 184.540000 -1.450000
194.100000 184.540000 -1.450000
194.060000 184.550000 -1.450000
194.010000 184.550000 -1.450000
193.970000 184.560000 -1.450000
193.910000 184.570000 -1.440000
193.880000 184.570000 -1.450000
193.840000 184.580000 -1.450000
193.800000 184.580000 -1.460000
193.760000 184.590000 -1.450000
193.730000 184.590000 -1.460000
193.690000 184.600000 -1.460000
193.650000 184.600000 -1.460000
193.610000 184.610000 -1.460000
193.590000 184.610000 -1.470000
193.540000 184.610000 -1.460000
193.500000 184.620000 -1.450000
193.480000 184.620000 -1.470000
193.450000 184.630000 -1.470000
193.410000 184.630000 -1.460000
193.380000 184.640000 -1.470000
193.350000 184.640000 -1.470000
193.320000 184.640000 -1.470000
193.300000 184.650000 -1.480000
193.270000 184.650000 -1.480000
193.230000 184.650000 -1.470000
193.210000 184.660000 -1.480000
193.170000 184.660000 -1.460000
193.150000 184.670000 -1.470000
193.120000 184.670000 -1.480000
193.090000 184.670000 -1.470000
193.070000 184.680000 -1.470000
193.040000 184.680000 -1.470000
193.020000 184.680000 -1.480000
192.990000 184.690000 -1.470000
192.960000 184.690000 -1.470000
192.940000 184.690000 -1.480000
192.920000 184.700000 -1.480000
192.890000 184.700000 -1.480000
192.870000 184.700000 -1.480000
192.840000 184.710000 -1.480000
192.820000 184.710000 -1.490000
192.800000 184.710000 -1.480000
192.770000 184.710000 -1.480000
192.750000 184.720000 -1.490000
192.730000 184.720000 -1.490000
192.710000 184.720000 -1.490000
192.680000 184.730000 -1.480000
192.660000 184.730000 -1.480000
192.650000 184.730000 -1.490000
192.620000 184.730000 -1.490000
192.600000 184.740000 -1.490000
192.580000 184.740000 -1.490000
192.560000 184.740000 -1.490000
192.540000 184.750000 -1.500000
192.520000 184.750000 -1.500000
192.490000 184.750000 -1.490000
192.470000 184.750000 -1.490000
192.460000 184.760000 -1.500000
192.440000 184.760000 -1.500000
192.420000 184.760000 -1.500000
192.400000 184.760000 -1.500000
192.380000 184.770000 -1.510000
192.360000 184.770000 -1.500000
192.340000 184.770000 -1.500000
192.320000 184.770000 -1.500000
192.310000 184.780000 -1.520000
192.290000 184.780000 -1.510000
192.270000 184.780000 -1.510000
192.250000 184.780000 -1.500000
192.230000 184.790000 -1.510000
192.210000 184.790000 -1.500000
192.200000 184.790000 -1.510000
192.180000 184.790000 -1.500000
192.160000 184.790000 -1.510000
192.150000 184.800000 -1.530000
192.130000 184.800000 -1.530000
192.110000 184.800000 -1.540000
192.100000 184.800000 -1.530000
192.080000 184.810000 -1.540000
192.070000 184.810000 -1.560000
197.090000 184.010000 -1.440000
196.930000 184.030000 -1.440000
196.780000 184.050000 -1.440000
196.640000 184.070000 -1.450000
196.510000 184.080000 -1.460000
196.370000 184.100000 -1.460000
196.260000 184.120000 -1.460000
196.140000 184.130000 -1.470000
196.000000 184.150000 -1.460000
195.880000 184.160000 -1.460000
195.780000 184.180000 -1.460000
195.660000 184.190000 -1.460000
195.570000 184.200000 -1.470000
195.460000 184.220000 -1.460000
195.370000 184.230000 -1.460000
195.280000 184.240000 -1.460000
195.200000 184.250000 -1.470000
195.100000 184.260000 -1.460000
195.020000 184.270000 -1.460000
194.960000 184.280000 -1.470000
194.870000 184.290000 -1.460000
194.800000 184.300000 -1.470000
194.730000 184.310000 -1.470000
194.640000 184.320000 -1.460000
194.570000 184.330000 -1.450000
194.510000 184.340000 -1.460000
194.460000 184.350000 -1.460000
194.380000 184.360000 -1.450000
194.320000 184.360000 -1.450000
194.290000 184.370000 -1.470000
194.220000 184.380000 -1.460000
194.170000 184.380000 -1.460000
194.120000 184.390000 -1.460000
194.070000 184.400000 -1.460000
194.020000 184.400000 -1.460000
193.960000 184.410000 -1.460000
193.930000 184.420000 -1.470000
193.880000 184.420000 -1.470000
193.840000 184.430000 -1.470000
193.800000 184.430000 -1.480000
193.760000 184.440000 -1.470000
193.710000 184.440000 -1.470000
193.670000 184.450000 -1.470000
193.640000 184.450000 -1.480000
193.590000 184.460000 -1.480000
193.550000 184.460000 -1.480000
193.520000 184.470000 -1.480000
193.480000 184.470000 -1.480000
193.450000 184.480000 -1.480000
193.410000 184.480000 -1.480000
193.380000 184.490000 -1.480000
193.340000 184.490000 -1.480000
193.320000 184.500000 -1.490000
193.280000 184.500000 -1.490000
193.240000 184.500000 -1.480000
193.220000 184.510000 -1.490000
193.190000 184.510000 -1.490000
193.150000 184.520000 -1.490000
193.130000 184.520000 -1.500000
193.100000 184.520000 -1.500000
193.070000 184.530000 -1.500000
193.050000 184.530000 -1.500000
193.000000 184.540000 -1.490000
192.980000 184.540000 -1.490000
192.950000 184.540000 -1.490000
192.930000 184.550000 -1.500000
192.900000 184.550000 -1.490000
192.870000 184.550000 -1.500000
192.840000 184.560000 -1.490000
192.820000 184.560000 -1.500000
192.800000 184.560000 -1.500000
192.770000 184.570000 -1.500000
192.750000 184.570000 -1.510000
192.730000 184.570000 -1.510000
192.700000 184.580000 -1.500000
192.670000 184.580000 -1.500000
192.650000 184.580000 -1.500000
192.640000 184.580000 -1.510000
192.610000 184.590000 -1.510000
192.580000 184.590000 -1.500000
192.570000 184.590000 -1.520000
192.540000 184.600000 -1.520000
192.520000 184.600000 -1.520000
192.500000 184.600000 -1.510000
192.480000 184.600000 -1.520000
192.450000 184.610000 -1.510000
192.430000 184.610000 -1.510000
192.410000 184.610000 -1.510000
192.390000 184.620000 -1.510000
192.380000 184.620000 -1.520000
192.350000 184.620000 -1.510000
192.330000 184.620000 -1.520000
192.310000 184.630000 -1.520000
192.300000 184.630000 -1.530000
192.280000 184.630000 -1.530000
192.250000 184.630000 -1.520000
192.240000 184.640000 -1.530000
192.220000 184.640000 -1.520000
192.200000 184.640000 -1.530000
192.170000 184.640000 -1.520000
192.160000 184.650000 -1.540000
192.150000 184.650000 -1.540000
192.120000 184.650000 -1.530000
192.100000 184.650000 -1.530000
192.090000 184.660000 -1.530000
192.070000 184.660000 -1.530000
192.050000 184.660000 -1.530000
192.030000 184.660000 -1.530000
192.010000 184.670000 -1.530000
192.000000 184.670000 -1.540000
191.980000 184.670000 -1.550000
191.970000 184.670000 -1.560000
191.940000 184.680000 -1.530000
191.930000 184.680000 -1.550000
191.910000 184.680000 -1.560000
196.940000 183.880000 -1.470000
196.770000 183.900000 -1.470000
196.620000 183.920000 -1.470000
196.460000 183.940000 -1.470000
196.340000 183.960000 -1.480000
196.190000 183.970000 -1.480000
196.080000 183.990000 -1.490000
195.950000 184.010000 -1.490000
195.830000 184.020000 -1.480000
195.710000 184.040000 -1.480000
195.590000 184.050000 -1.480000
195.490000 184.060000 -1.490000
195.410000 184.080000 -1.490000
195.290000 184.090000 -1.490000
195.210000 184.100000 -1.490000
195.110000 184.110000 -1.490000
195.040000 184.120000 -1.490000
194.950000 184.140000 -1.490000
194.870000 184.150000 -1.500000
194.780000 184.160000 -1.490000
194.710000 184.170000 -1.490000
194.640000 184.180000 -1.490000
194.560000 184.190000 -1.490000
194.470000 184.200000 -1.480000
194.420000 184.200000 -1.490000
194.340000 184.210000 -1.480000
194.280000 184.220000 -1.480000
194.220000 184.230000 -1.480000
194.160000 184.240000 -1.480000
194.120000 184.240000 -1.490000
194.070000 184.250000 -1.490000
194.000000 184.260000 -1.490000
193.950000 184.260000 -1.490000
193.900000 184.270000 -1.490000
193.850000 184.280000 -1.490000
193.800000 184.280000 -1.490000
193.760000 184.290000 -1.490000
193.720000 184.290000 -1.500000
193.680000 184.300000 -1.500000
193.630000 184.310000 -1.500000
193.590000 184.310000 -1.500000
193.540000 184.320000 -1.500000
193.510000 184.320000 -1.510000
193.470000 184.330000 -1.500000
193.430000 184.330000 -1.500000
193.390000 184.340000 -1.500000
193.360000 184.340000 -1.510000
193.310000 184.350000 -1.500000
193.280000 184.350000 -1.510000
193.250000 184.360000 -1.510000
193.210000 184.360000 -1.510000
193.190000 184.360000 -1.520000
193.150000 184.370000 -1.520000
193.110000 184.370000 -1.510000
193.080000 184.380000 -1.510000
193.060000 184.380000 -1.520000
193.020000 184.390000 -1.520000
192.990000 184.390000 -1.510000
192.960000 184.390000 -1.520000
192.930000 184.400000 -1.520000
192.900000 184.400000 -1.520000
192.880000 184.400000 -1.530000
192.840000 184.410000 -1.510000
192.820000 184.410000 -1.520000
192.790000 184.420000 -1.520000
192.760000 184.420000 -1.520000
192.740000 184.420000 -1.520000
192.710000 184.430000 -1.520000
192.690000 184.430000 -1.530000
192.660000 184.430000 -1.530000
192.630000 184.440000 -1.520000
192.610000 184.440000 -1.530000
192.590000 184.440000 -1.540000
192.560000 184.450000 -1.530000
192.540000 184.450000 -1.530000
192.510000 184.450000 -1.530000
192.490000 184.450000 -1.540000
192.470000 184.460000 -1.540000
192.440000 184.460000 -1.530000
192.420000 184.460000 -1.530000
192.400000 184.470000 -1.540000
192.380000 184.470000 -1.540000
192.350000 184.470000 -1.530000
192.330000 184.480000 -1.540000
192.320000 184.480000 -1.550000
192.290000 184.480000 -1.540000
192.270000 184.480000 -1.540000
192.240000 184.490000 -1.530000
192.230000 184.490000 -1.550000
192.210000 184.490000 -1.550000
192.190000 184.490000 -1.550000
192.160000 184.500000 -1.540000
192.150000 184.500000 -1.550000
192.130000 184.500000 -1.550000
192.110000 184.510000 -1.550000
192.090000 184.510000 -1.550000
192.070000 184.510000 -1.550000
192.050000 184.510000 -1.550000
192.030000 184.520000 -1.560000
192.020000 184.520000 -1.560000
192.000000 184.520000 -1.560000
191.980000 184.520000 -1.560000
191.960000 184.530000 -1.560000
191.940000 184.530000 -1.550000
191.920000 184.530000 -1.560000
191.900000 184.530000 -1.550000
191.880000 184.530000 -1.550000
191.870000 184.540000 -1.560000
191.850000 184.540000 -1.560000
191.830000 184.540000 -1.560000
191.810000 184.540000 -1.570000
191.800000 184.550000 -1.580000
191.780000 184.550000 -1.580000
191.760000 184.550000 -1.580000
191.750000 184.550000 -1.610000
196.730000 183.750000 -1.480000
196.570000 183.770000 -1.490000
196.430000 183.790000 -1.490000
196.270000 183.810000 -1.490000
196.140000 183.830000 -1.500000
196.010000 183.850000 -1.500000
195.890000 183.860000 -1.500000
195.740000 183.880000 -1.500000
195.630000 183.900000 -1.500000
195.510000 183.910000 -1.500000
195.420000 183.920000 -1.510000
195.310000 183.940000 -1.510000
195.210000 183.950000 -1.510000
195.110000 183.960000 -1.500000
195.020000 183.980000 -1.510000
194.920000 183.990000 -1.500000
194.840000 184.000000 -1.510000
194.760000 184.010000 -1.510000
194.690000 184.020000 -1.510000
194.610000 184.030000 -1.510000
194.530000 184.040000 -1.510000
194.450000 184.050000 -1.510000
194.390000 184.060000 -1.510000
194.300000 184.070000 -1.500000
194.240000 184.080000 -1.510000
194.160000 184.090000 -1.500000
194.110000 184.090000 -1.500000
194.050000 184.100000 -1.500000
193.990000 184.110000 -1.500000
193.920000 184.120000 -1.500000
193.880000 184.120000 -1.500000
193.830000 184.130000 -1.510000
193.780000 184.140000 -1.510000
193.720000 184.140000 -1.500000
193.690000 184.150000 -1.520000
193.630000 184.160000 -1.510000
193.600000 184.160000 -1.520000
193.540000 184.170000 -1.520000
193.510000 184.170000 -1.530000
193.460000 184.180000 -1.520000
193.420000 184.180000 -1.520000
193.370000 184.190000 -1.520000
193.340000 184.190000 -1.520000
193.290000 184.200000 -1.520000
193.250000 184.210000 -1.520000
193.210000 184.210000 -1.520000
193.180000 184.210000 -1.530000
193.150000 184.220000 -1.530000
193.110000 184.220000 -1.530000
193.080000 184.230000 -1.540000
193.050000 184.230000 -1.530000
193.010000 184.240000 -1.530000
192.980000 184.240000 -1.530000
192.940000 184.250000 -1.530000
192.910000 184.250000 -1.530000
192.880000 184.250000 -1.540000
192.850000 184.260000 -1.540000
192.820000 184.260000 -1.540000
192.800000 184.270000 -1.550000
192.760000 184.270000 -1.540000
192.740000 184.270000 -1.550000
192.700000 184.280000 -1.540000
192.670000 184.280000 -1.540000
192.650000 184.290000 -1.550000
192.620000 184.290000 -1.550000
192.590000 184.290000 -1.540000
192.560000 184.300000 -1.540000
192.540000 184.300000 -1.540000
192.510000 184.300000 -1.550000
192.490000 184.310000 -1.540000
192.460000 184.310000 -1.550000
192.440000 184.310000 -1.540000
192.410000 184.320000 -1.550000
192.390000 184.320000 -1.550000
192.360000 184.320000 -1.550000
192.350000 184.320000 -1.560000
192.330000 184.330000 -1.560000
192.300000 184.330000 -1.560000
192.270000 184.330000 -1.550000
192.250000 184.340000 -1.550000
192.240000 184.340000 -1.560000
192.210000 184.340000 -1.570000
192.190000 184.350000 -1.570000
192.170000 184.350000 -1.570000
192.140000 184.350000 -1.560000
192.120000 184.350000 -1.560000
192.100000 184.360000 -1.560000
192.080000 184.360000 -1.550000
192.060000 184.360000 -1.560000
192.040000 184.370000 -1.560000
192.020000 184.370000 -1.560000
192.000000 184.370000 -1.560000
191.980000 184.370000 -1.570000
191.970000 184.380000 -1.580000
191.950000 184.380000 -1.580000
191.930000 184.380000 -1.580000
191.900000 184.380000 -1.580000
191.880000 184.390000 -1.570000
191.860000 184.390000 -1.570000
191.850000 184.390000 -1.590000
191.830000 184.390000 -1.580000
191.810000 184.400000 -1.570000
191.790000 184.400000 -1.580000
191.770000 184.400000 -1.580000
191.750000 184.400000 -1.580000
191.730000 184.410000 -1.570000
191.720000 184.410000 -1.580000
191.700000 184.410000 -1.570000
191.680000 184.410000 -1.580000
191.660000 184.420000 -1.590000
191.650000 184.420000 -1.600000
191.640000 184.420000 -1.620000
191.620000 184.420000 -1.600000
191.600000 184.420000 -1.610000
191.580000 184.430000 -1.610000
196.560000 183.630000 -1.500000
196.410000 183.650000 -1.510000
196.250000 183.670000 -1.510000
196.110000 183.680000 -1.520000
195.970000 183.700000 -1.520000
195.850000 183.720000 -1.530000
195.720000 183.740000 -1.530000
195.590000 183.750000 -1.520000
195.460000 183.770000 -1.520000
195.350000 183.780000 -1.530000
195.240000 183.800000 -1.530000
195.140000 183.810000 -1.530000
195.040000 183.820000 -1.530000
194.950000 183.840000 -1.530000
194.850000 183.850000 -1.530000
194.770000 183.860000 -1.540000
194.680000 183.870000 -1.530000
194.590000 183.880000 -1.530000
194.510000 183.890000 -1.530000
194.440000 183.900000 -1.540000
194.370000 183.910000 -1.540000
194.290000 183.920000 -1.540000
194.220000 183.930000 -1.540000
194.140000 183.940000 -1.530000
194.060000 183.950000 -1.520000
194.000000 183.960000 -1.530000
193.930000 183.970000 -1.520000
193.890000 183.970000 -1.530000
193.830000 183.980000 -1.530000
193.770000 183.990000 -1.530000
193.720000 184.000000 -1.530000
193.660000 184.000000 -1.530000
193.610000 184.010000 -1.530000
193.550000 184.020000 -1.530000
193.510000 184.020000 -1.540000
193.470000 184.030000 -1.540000
193.420000 184.030000 -1.540000
193.380000 184.040000 -1.540000
193.340000 184.050000 -1.540000
193.290000 184.050000 -1.540000
193.260000 184.060000 -1.550000
193.200000 184.060000 -1.540000
193.170000 184.070000 -1.540000
193.130000 184.070000 -1.540000
193.090000 184.080000 -1.550000
193.050000 184.080000 -1.550000
193.020000 184.090000 -1.550000
192.980000 184.090000 -1.550000
192.950000 184.100000 -1.560000
192.910000 184.100000 -1.550000
192.870000 184.110000 -1.550000
192.840000 184.110000 -1.560000
192.810000 184.110000 -1.560000
192.770000 184.120000 -1.550000
192.750000 184.120000 -1.560000
192.720000 184.130000 -1.570000
192.680000 184.130000 -1.560000
192.660000 184.140000 -1.560000
192.630000 184.140000 -1.560000
192.600000 184.140000 -1.560000
192.570000 184.150000 -1.570000
192.540000 184.150000 -1.570000
192.500000 184.160000 -1.560000
192.480000 184.160000 -1.560000
192.450000 184.160000 -1.560000
192.430000 184.170000 -1.570000
192.400000 184.170000 -1.570000
192.380000 184.170000 -1.570000
192.350000 184.180000 -1.570000
192.320000 184.180000 -1.570000
192.300000 184.180000 -1.570000
192.280000 184.190000 -1.580000
192.250000 184.190000 -1.570000
192.230000 184.190000 -1.580000
192.200000 184.200000 -1.570000
192.180000 184.200000 -1.580000
192.160000 184.200000 -1.590000
192.130000 184.200000 -1.580000
192.110000 184.210000 -1.580000
192.090000 184.210000 -1.580000
192.070000 184.210000 -1.590000
192.040000 184.220000 -1.580000
192.020000 184.220000 -1.580000
192.000000 184.220000 -1.580000
191.980000 184.220000 -1.590000
191.960000 184.230000 -1.590000
191.940000 184.230000 -1.590000
191.920000 184.230000 -1.590000
191.900000 184.240000 -1.600000
191.870000 184.240000 -1.590000
191.850000 184.240000 -1.590000
191.830000 184.240000 -1.590000
191.810000 184.250000 -1.590000
191.800000 184.250000 -1.600000
191.780000 184.250000 -1.590000
191.760000 184.250000 -1.600000
191.730000 184.260000 -1.590000
191.720000 184.260000 -1.610000
191.700000 184.260000 -1.610000
191.680000 184.260000 -1.600000
191.670000 184.270000 -1.610000
191.650000 184.270000 -1.610000
191.630000 184.270000 -1.610000
191.610000 184.270000 -1.610000
191.590000 184.280000 -1.610000
191.570000 184.280000 -1.600000
191.550000 184.280000 -1.600000
191.530000 184.280000 -1.600000
191.520000 184.290000 -1.600000
191.500000 184.290000 -1.610000
191.480000 184.290000 -1.620000
191.470000 184.290000 -1.630000
191.450000 184.300000 -1.630000
191.430000 184.300000 -1.630000
191.420000 184.300000 -1.640000
196.580000 183.470000 -1.530000
196.400000 183.500000 -1.540000
196.240000 183.520000 -1.540000
196.100000 183.540000 -1.540000
195.950000 183.560000 -1.550000
195.820000 183.570000 -1.550000
195.680000 183.590000 -1.550000
195.560000 183.610000 -1.560000
195.420000 183.630000 -1.550000
195.310000 183.640000 -1.560000
195.190000 183.650000 -1.560000
195.090000 183.670000 -1.560000
194.980000 183.680000 -1.560000
194.900000 183.690000 -1.570000
194.780000 183.710000 -1.560000
194.700000 183.720000 -1.560000
194.620000 183.730000 -1.570000
194.520000 183.740000 -1.560000
194.430000 183.750000 -1.560000
194.360000 183.760000 -1.570000
194.280000 183.770000 -1.570000
194.200000 183.780000 -1.560000
194.130000 183.790000 -1.570000
194.050000 183.800000 -1.560000
193.970000 183.810000 -1.560000
193.890000 183.820000 -1.550000
193.840000 183.830000 -1.560000
193.780000 183.840000 -1.550000
193.720000 183.850000 -1.560000
193.680000 183.850000 -1.570000
193.620000 183.860000 -1.570000
193.550000 183.870000 -1.560000
193.500000 183.870000 -1.560000
193.450000 183.880000 -1.560000
193.400000 183.890000 -1.560000
193.350000 183.890000 -1.560000
193.300000 183.900000 -1.560000
193.250000 183.910000 -1.560000
193.210000 183.910000 -1.570000
193.170000 183.920000 -1.570000
193.130000 183.920000 -1.570000
193.080000 183.930000 -1.570000
193.040000 183.940000 -1.570000
193.000000 183.940000 -1.570000
192.960000 183.950000 -1.570000
192.930000 183.950000 -1.580000
192.880000 183.960000 -1.570000
192.860000 183.960000 -1.580000
192.810000 183.970000 -1.580000
192.780000 183.970000 -1.580000
192.750000 183.970000 -1.590000
192.710000 183.980000 -1.580000
192.680000 183.980000 -1.590000
192.650000 183.990000 -1.590000
192.620000 183.990000 -1.590000
192.580000 184.000000 -1.580000
192.560000 184.000000 -1.590000
192.530000 184.000000 -1.600000
192.490000 184.010000 -1.590000
192.470000 184.010000 -1.600000
192.430000 184.020000 -1.590000
192.410000 184.020000 -1.600000
192.370000 184.020000 -1.590000
192.340000 184.030000 -1.590000
192.310000 184.030000 -1.590000
192.280000 184.040000 -1.590000
192.260000 184.040000 -1.600000
192.230000 184.040000 -1.590000
192.210000 184.050000 -1.600000
192.180000 184.050000 -1.600000
192.160000 184.050000 -1.600000
192.130000 184.060000 -1.600000
192.110000 184.060000 -1.600000
192.080000 184.060000 -1.600000
192.060000 184.070000 -1.600000
192.030000 184.070000 -1.600000
192.010000 184.070000 -1.600000
191.990000 184.070000 -1.600000
191.970000 184.080000 -1.610000
191.950000 184.080000 -1.610000
191.930000 184.080000 -1.610000
191.900000 184.090000 -1.610000
191.880000 184.090000 -1.610000
191.860000 184.090000 -1.610000
191.830000 184.100000 -1.610000
191.810000 184.100000 -1.610000
191.790000 184.100000 -1.610000
191.770000 184.100000 -1.600000
191.750000 184.110000 -1.610000
191.730000 184.110000 -1.610000
191.710000 184.110000 -1.620000
191.690000 184.110000 -1.610000
191.670000 184.120000 -1.610000
191.650000 184.120000 -1.610000
191.630000 184.120000 -1.620000
191.610000 184.120000 -1.630000
191.590000 184.130000 -1.630000
191.570000 184.130000 -1.630000
191.550000 184.130000 -1.620000
191.530000 184.140000 -1.610000
191.520000 184.140000 -1.630000
191.500000 184.140000 -1.630000
191.480000 184.140000 -1.630000
191.460000 184.150000 -1.630000
191.440000 184.150000 -1.630000
191.420000 184.150000 -1.630000
191.400000 184.150000 -1.620000
191.390000 184.150000 -1.630000
191.370000 184.160000 -1.620000
191.350000 184.160000 -1.630000
191.330000 184.160000 -1.640000
191.320000 184.160000 -1.640000
191.300000 184.170000 -1.660000
191.280000 184.170000 -1.650000
191.270000 184.170000 -1.660000
191.250000 184.170000 -1.660000
196.370000 183.350000 -1.550000
196.220000 183.370000 -1.560000
196.060000 183.390000 -1.560000
195.920000 183.410000 -1.570000
195.750000 183.430000 -1.560000
195.640000 183.450000 -1.580000
195.500000 183.460000 -1.570000
195.390000 183.480000 -1.580000
195.240000 183.500000 -1.580000
195.130000 183.510000 -1.580000
195.010000 183.530000 -1.580000
194.910000 183.540000 -1.580000
194.800000 183.560000 -1.580000
194.720000 183.570000 -1.590000
194.590000 183.580000 -1.580000
194.520000 183.590000 -1.590000
194.420000 183.600000 -1.580000
194.350000 183.620000 -1.590000
194.260000 183.630000 -1.590000
194.200000 183.640000 -1.600000
194.080000 183.650000 -1.580000
194.030000 183.660000 -1.590000
193.950000 183.670000 -1.580000
193.890000 183.680000 -1.590000
193.790000 183.690000 -1.580000
193.730000 183.700000 -1.580000
193.660000 183.700000 -1.570000
193.610000 183.710000 -1.580000
193.540000 183.720000 -1.580000
193.490000 183.730000 -1.580000
193.430000 183.730000 -1.580000
193.390000 183.740000 -1.590000
193.320000 183.750000 -1.580000
193.280000 183.750000 -1.590000
193.210000 183.760000 -1.580000
193.180000 183.770000 -1.590000
193.130000 183.770000 -1.580000
193.090000 183.780000 -1.590000
193.050000 183.790000 -1.590000
193.010000 183.790000 -1.600000
192.950000 183.800000 -1.590000
192.910000 183.800000 -1.590000
192.870000 183.810000 -1.590000
192.830000 183.810000 -1.600000
192.790000 183.820000 -1.590000
192.760000 183.820000 -1.600000
192.720000 183.830000 -1.600000
192.690000 183.830000 -1.600000
192.640000 183.840000 -1.600000
192.620000 183.840000 -1.610000
192.570000 183.850000 -1.600000
192.540000 183.850000 -1.600000
192.520000 183.860000 -1.610000
192.490000 183.860000 -1.620000
192.440000 183.870000 -1.610000
192.410000 183.870000 -1.610000
192.380000 183.870000 -1.610000
192.360000 183.880000 -1.620000
192.320000 183.880000 -1.610000
192.300000 183.880000 -1.620000
192.260000 183.890000 -1.620000
192.240000 183.890000 -1.620000
192.210000 183.900000 -1.620000
192.170000 183.900000 -1.610000
192.150000 183.900000 -1.620000
192.120000 183.910000 -1.610000
192.090000 183.910000 -1.610000
192.070000 183.910000 -1.620000
192.050000 183.920000 -1.620000
192.020000 183.920000 -1.620000
191.990000 183.920000 -1.630000
191.970000 183.930000 -1.620000
191.940000 183.930000 -1.630000
191.920000 183.930000 -1.630000
191.890000 183.940000 -1.620000
191.870000 183.940000 -1.630000
191.850000 183.940000 -1.630000
191.820000 183.950000 -1.630000
191.800000 183.950000 -1.620000
191.780000 183.950000 -1.630000
191.750000 183.960000 -1.630000
191.740000 183.960000 -1.640000
191.710000 183.960000 -1.630000
191.690000 183.970000 -1.630000
191.670000 183.970000 -1.640000
191.650000 183.970000 -1.640000
191.630000 183.970000 -1.640000
191.610000 183.980000 -1.640000
191.580000 183.980000 -1.630000
191.560000 183.980000 -1.640000
191.550000 183.980000 -1.650000
191.520000 183.990000 -1.640000
191.500000 183.990000 -1.640000
191.490000 183.990000 -1.650000
191.460000 184.000000 -1.650000
191.450000 184.000000 -1.650000
191.430000 184.000000 -1.650000
191.410000 184.000000 -1.650000
191.390000 184.010000 -1.650000
191.370000 184.010000 -1.650000
191.340000 184.010000 -1.640000
191.330000 184.010000 -1.660000
191.310000 184.020000 -1.660000
191.290000 184.020000 -1.660000
191.270000 184.020000 -1.650000
191.260000 184.020000 -1.660000
191.240000 184.030000 -1.660000
191.220000 184.030000 -1.650000
191.200000 184.030000 -1.650000
191.180000 184.030000 -1.660000
191.170000 184.040000 -1.660000
191.150000 184.040000 -1.670000
191.130000 184.040000 -1.670000
191.120000 184.040000 -1.690000
191.100000 184.050000 -1.680000
191.090000 184.050000 -1.700000
196.210000 183.220000 -1.580000
196.030000 183.240000 -1.580000
195.870000 183.260000 -1.580000
195.730000 183.280000 -1.590000
195.580000 183.300000 -1.590000
195.450000 183.320000 -1.590000
195.320000 183.340000 -1.600000
195.190000 183.350000 -1.600000
195.070000 183.370000 -1.600000
194.950000 183.390000 -1.600000
194.830000 183.400000 -1.600000
194.740000 183.410000 -1.600000
194.630000 183.430000 -1.600000
194.520000 183.440000 -1.600000
194.420000 183.450000 -1.600000
194.350000 183.460000 -1.610000
194.260000 183.480000 -1.610000
194.170000 183.490000 -1.610000
194.090000 183.500000 -1.610000
194.000000 183.510000 -1.610000
193.930000 183.520000 -1.610000
193.850000 183.530000 -1.610000
193.780000 183.540000 -1.610000
193.710000 183.550000 -1.610000
193.630000 183.560000 -1.600000
193.560000 183.570000 -1.600000
193.490000 183.580000 -1.600000
193.430000 183.580000 -1.600000
193.380000 183.590000 -1.600000
193.320000 183.600000 -1.600000
193.260000 183.610000 -1.600000
193.210000 183.610000 -1.610000
193.150000 183.620000 -1.600000
193.110000 183.630000 -1.610000
193.050000 183.630000 -1.600000
193.010000 183.640000 -1.610000
192.960000 183.650000 -1.610000
192.910000 183.650000 -1.610000
192.870000 183.660000 -1.610000
192.840000 183.660000 -1.620000
192.780000 183.670000 -1.610000
192.740000 183.680000 -1.610000
192.710000 183.680000 -1.620000
192.670000 183.690000 -1.620000
192.620000 183.690000 -1.620000
192.590000 183.700000 -1.620000
192.540000 183.700000 -1.620000
192.510000 183.710000 -1.620000
192.470000 183.710000 -1.620000
192.440000 183.720000 -1.630000
192.410000 183.720000 -1.630000
192.370000 183.730000 -1.620000
192.340000 183.730000 -1.630000
192.310000 183.730000 -1.630000
192.270000 183.740000 -1.620000
192.240000 183.740000 -1.630000
192.220000 183.750000 -1.640000
192.190000 183.750000 -1.640000
192.160000 183.750000 -1.640000
192.130000 183.760000 -1.640000
192.090000 183.760000 -1.630000
192.080000 183.770000 -1.650000
192.030000 183.770000 -1.630000
192.000000 183.770000 -1.630000
191.980000 183.780000 -1.640000
191.950000 183.780000 -1.630000
191.920000 183.780000 -1.640000
191.890000 183.790000 -1.640000
191.880000 183.790000 -1.650000
191.840000 183.790000 -1.640000
191.820000 183.800000 -1.640000
191.790000 183.800000 -1.640000
191.770000 183.800000 -1.640000
191.750000 183.810000 -1.650000
191.730000 183.810000 -1.650000
191.700000 183.810000 -1.650000
191.680000 183.820000 -1.650000
191.660000 183.820000 -1.650000
191.630000 183.820000 -1.650000
191.600000 183.830000 -1.640000
191.590000 183.830000 -1.660000
191.570000 183.830000 -1.660000
191.540000 183.840000 -1.660000
191.520000 183.840000 -1.660000
191.500000 183.840000 -1.660000
191.490000 183.840000 -1.670000
191.460000 183.850000 -1.670000
191.440000 183.850000 -1.660000
191.420000 183.850000 -1.660000
191.400000 183.860000 -1.670000
191.380000 183.860000 -1.660000
191.360000 183.860000 -1.660000
191.330000 183.860000 -1.650000
191.320000 183.870000 -1.670000
191.300000 183.870000 -1.680000
191.280000 183.870000 -1.680000
191.260000 183.870000 -1.670000
191.240000 183.880000 -1.680000
191.220000 183.880000 -1.660000
191.200000 183.880000 -1.670000
191.180000 183.880000 -1.670000
191.170000 183.890000 -1.690000
191.140000 183.890000 -1.670000
191.130000 183.890000 -1.690000
191.110000 183.890000 -1.680000
191.090000 183.900000 -1.670000
191.070000 183.900000 -1.670000
191.050000 183.900000 -1.680000
191.040000 183.900000 -1.680000
191.020000 183.910000 -1.680000
191.000000 183.910000 -1.680000
190.980000 183.910000 -1.690000
190.970000 183.910000 -1.700000
190.950000 183.920000 -1.690000
190.940000 183.920000 -1.710000
190.920000 183.920000 -1.710000
196.080000 183.090000 -1.610000
195.880000 183.110000 -1.610000
195.730000 183.130000 -1.620000
195.580000 183.150000 -1.620000
195.440000 183.170000 -1.620000
195.290000 183.190000 -1.620000
195.180000 183.200000 -1.630000
195.050000 183.220000 -1.630000
194.920000 183.240000 -1.630000
194.790000 183.260000 -1.630000
194.690000 183.270000 -1.630000
194.580000 183.280000 -1.630000
194.480000 183.300000 -1.640000
194.370000 183.310000 -1.630000
194.280000 183.320000 -1.630000
194.190000 183.340000 -1.640000
194.100000 183.350000 -1.640000
194.010000 183.360000 -1.640000
193.920000 183.370000 -1.640000
193.850000 183.380000 -1.640000
193.780000 183.390000 -1.640000
193.690000 183.400000 -1.640000
193.620000 183.410000 -1.640000
193.550000 183.420000 -1.640000
193.470000 183.430000 -1.630000
193.390000 183.440000 -1.630000
193.330000 183.450000 -1.620000
193.270000 183.460000 -1.630000
193.230000 183.460000 -1.640000
193.150000 183.470000 -1.630000
193.090000 183.480000 -1.630000
193.040000 183.490000 -1.630000
193.000000 183.490000 -1.630000
192.940000 183.500000 -1.630000
192.890000 183.510000 -1.630000
192.850000 183.510000 -1.640000
192.800000 183.520000 -1.640000
192.760000 183.520000 -1.640000
192.720000 183.530000 -1.650000
192.670000 183.540000 -1.650000
192.630000 183.540000 -1.640000
192.580000 183.550000 -1.640000
192.550000 183.550000 -1.650000
192.500000 183.560000 -1.650000
192.460000 183.560000 -1.650000
192.420000 183.570000 -1.650000
192.380000 183.570000 -1.650000
192.350000 183.580000 -1.650000
192.310000 183.580000 -1.650000
192.280000 183.590000 -1.650000
192.250000 183.590000 -1.660000
192.210000 183.600000 -1.650000
192.180000 183.600000 -1.660000
192.150000 183.610000 -1.660000
192.120000 183.610000 -1.660000
192.080000 183.610000 -1.660000
192.060000 183.620000 -1.670000
192.020000 183.620000 -1.660000
191.990000 183.630000 -1.660000
191.960000 183.630000 -1.670000
191.930000 183.630000 -1.670000
191.910000 183.640000 -1.670000
191.870000 183.640000 -1.660000
191.840000 183.650000 -1.660000
191.810000 183.650000 -1.660000
191.790000 183.650000 -1.670000
191.760000 183.660000 -1.670000
191.730000 183.660000 -1.670000
191.710000 183.660000 -1.670000
191.680000 183.670000 -1.670000
191.660000 183.670000 -1.670000
191.630000 183.670000 -1.670000
191.610000 183.680000 -1.680000
191.580000 183.680000 -1.670000
191.560000 183.680000 -1.670000
191.530000 183.690000 -1.670000
191.510000 183.690000 -1.680000
191.490000 183.690000 -1.680000
191.470000 183.700000 -1.680000
191.440000 183.700000 -1.680000
191.420000 183.700000 -1.680000
191.400000 183.710000 -1.680000
191.380000 183.710000 -1.680000
191.350000 183.710000 -1.670000
191.340000 183.710000 -1.680000
191.310000 183.720000 -1.690000
191.290000 183.720000 -1.690000
191.270000 183.720000 -1.680000
191.250000 183.730000 -1.680000
191.230000 183.730000 -1.690000
191.210000 183.730000 -1.690000
191.190000 183.730000 -1.690000
191.170000 183.740000 -1.700000
191.150000 183.740000 -1.700000
191.130000 183.740000 -1.690000
191.120000 183.740000 -1.700000
191.090000 183.750000 -1.700000
191.070000 183.750000 -1.700000
191.050000 183.750000 -1.700000
191.030000 183.750000 -1.700000
191.020000 183.760000 -1.700000
191.000000 183.760000 -1.710000
190.980000 183.760000 -1.710000
190.960000 183.760000 -1.710000
190.940000 183.770000 -1.690000
190.920000 183.770000 -1.700000
190.910000 183.770000 -1.710000
190.890000 183.770000 -1.700000
190.870000 183.780000 -1.700000
190.850000 183.780000 -1.700000
190.830000 183.780000 -1.710000
190.820000 183.780000 -1.720000
190.810000 183.790000 -1.740000
190.790000 183.790000 -1.730000
190.770000 183.790000 -1.730000
190.760000 183.790000 -1.740000
195.880000 182.960000 -1.630000
195.710000 182.980000 -1.630000
195.550000 183.000000 -1.630000
195.410000 183.020000 -1.640000
195.250000 183.040000 -1.640000
195.130000 183.060000 -1.650000
195.000000 183.080000 -1.650000
194.880000 183.090000 -1.660000
194.740000 183.110000 -1.650000
194.630000 183.130000 -1.650000
194.510000 183.140000 -1.650000
194.410000 183.150000 -1.660000
194.290000 183.170000 -1.650000
194.210000 183.180000 -1.660000
194.100000 183.200000 -1.650000
194.030000 183.210000 -1.660000
193.930000 183.220000 -1.660000
193.850000 183.230000 -1.660000
193.750000 183.240000 -1.660000
193.680000 183.250000 -1.660000
193.590000 183.260000 -1.660000
193.530000 183.270000 -1.670000
193.450000 183.280000 -1.660000
193.390000 183.290000 -1.660000
193.300000 183.300000 -1.660000
193.230000 183.310000 -1.650000
193.160000 183.320000 -1.650000
193.110000 183.330000 -1.650000
193.040000 183.340000 -1.650000
192.980000 183.340000 -1.650000
192.930000 183.350000 -1.650000
192.890000 183.360000 -1.660000
192.820000 183.360000 -1.650000
192.780000 183.370000 -1.660000
192.720000 183.380000 -1.660000
192.680000 183.380000 -1.660000
192.630000 183.390000 -1.660000
192.590000 183.400000 -1.660000
192.540000 183.400000 -1.660000
192.510000 183.410000 -1.670000
192.460000 183.410000 -1.670000
192.420000 183.420000 -1.670000
192.370000 183.430000 -1.670000
192.330000 183.430000 -1.670000
192.290000 183.440000 -1.660000
192.260000 183.440000 -1.670000
192.220000 183.450000 -1.670000
192.190000 183.450000 -1.680000
192.150000 183.460000 -1.680000
192.110000 183.460000 -1.670000
192.070000 183.470000 -1.670000
192.050000 183.470000 -1.680000
192.010000 183.470000 -1.680000
191.990000 183.480000 -1.690000
191.940000 183.480000 -1.670000
191.920000 183.490000 -1.690000
191.880000 183.490000 -1.680000
191.850000 183.500000 -1.690000
191.820000 183.500000 -1.690000
191.790000 183.500000 -1.690000
191.760000 183.510000 -1.690000
191.730000 183.510000 -1.690000
191.710000 183.510000 -1.690000
191.680000 183.520000 -1.690000
191.650000 183.520000 -1.690000
191.630000 183.530000 -1.700000
191.590000 183.530000 -1.690000
191.570000 183.530000 -1.690000
191.540000 183.540000 -1.690000
191.520000 183.540000 -1.690000
191.490000 183.540000 -1.690000
191.460000 183.550000 -1.690000
191.440000 183.550000 -1.700000
191.420000 183.550000 -1.700000
191.400000 183.560000 -1.700000
191.370000 183.560000 -1.700000
191.350000 183.560000 -1.700000
191.320000 183.570000 -1.700000
191.300000 183.570000 -1.710000
191.280000 183.570000 -1.700000
191.250000 183.580000 -1.700000
191.240000 183.580000 -1.710000
191.210000 183.580000 -1.710000
191.180000 183.580000 -1.700000
191.170000 183.590000 -1.720000
191.150000 183.590000 -1.710000
191.130000 183.590000 -1.710000
191.100000 183.600000 -1.700000
191.080000 183.600000 -1.710000
191.070000 183.600000 -1.720000
191.040000 183.600000 -1.710000
191.020000 183.610000 -1.710000
191.000000 183.610000 -1.710000
190.990000 183.610000 -1.720000
190.960000 183.610000 -1.720000
190.950000 183.620000 -1.730000
190.920000 183.620000 -1.720000
190.910000 183.620000 -1.720000
190.890000 183.630000 -1.720000
190.870000 183.630000 -1.720000
190.850000 183.630000 -1.730000
190.830000 183.630000 -1.730000
190.810000 183.640000 -1.720000
190.790000 183.640000 -1.720000
190.780000 183.640000 -1.730000
190.760000 183.640000 -1.730000
190.740000 183.650000 -1.730000
190.720000 183.650000 -1.730000
190.700000 183.650000 -1.730000
190.680000 183.650000 -1.730000
190.670000 183.650000 -1.730000
190.650000 183.660000 -1.750000
190.640000 183.660000 -1.750000
190.620000 183.660000 -1.760000
190.600000 183.660000 -1.750000
190.590000 183.670000 -1.760000
195.700000 182.830000 -1.650000
195.540000 182.850000 -1.660000
195.380000 182.870000 -1.660000
195.230000 182.890000 -1.660000
195.090000 182.910000 -1.670000
194.950000 182.930000 -1.670000
194.820000 182.950000 -1.670000
194.700000 182.960000 -1.680000
194.570000 182.980000 -1.670000
194.450000 183.000000 -1.670000
194.340000 183.010000 -1.680000
194.230000 183.030000 -1.680000
194.140000 183.040000 -1.680000
194.030000 183.050000 -1.680000
193.920000 183.070000 -1.680000
